# .PCD v0.7 - Point Cloud Data file format
VERSION 0.7
FIELDS x y z rgb
SIZE 4 4 4 4
TYPE F F F F
COUNT 1 1 1 1
WIDTH 926
HEIGHT 1
VIEWPOINT 0 0 0 1 0 0 0
POINTS 926
DATA ascii
0.02283412 -0.042423166 -0.052555546 9.3088803e-39
0.02691618 -0.043647561 -0.052815378 1.1149913e-38
0.032575142 -0.043657817 -0.051348258 1.2718671e-38
0.037202723 -0.044923585 -0.05407659 5.1604357e-39
0.059081327 -0.044476066 -0.052781895 8.279628e-40
0.062391445 -0.042983472 -0.05250968 9.2015843e-40
0.066827781 -0.041327734 -0.052592792 1.1967439e-39
0.073042572 -0.040765565 -0.052927926 1.1045553e-39
0.013507231 -0.036991935 -0.052514229 3.8693312e-39
0.017019315 -0.037419233 -0.052679148 7.3727623e-39
0.022287717 -0.038210846 -0.05158136 2.1186988e-39
0.0642993 -0.039756518 -0.052915156 6.4357014e-40
0.068074241 -0.038315222 -0.052758489 1.1963866e-39
0.07162641 -0.03684241 -0.052536104 6.4357014e-40
0.0039057608 -0.031136043 -0.053256758 3.7792936e-39
0.0078850864 -0.031309508 -0.053063769 2.9495343e-39
0.01216567 -0.032941494 -0.052167173 2.6715111e-39
0.015483998 -0.03417458 -0.053288978 4.4221602e-39
0.06941966 -0.034379933 -0.052667409 2.1183387e-39
0.073100209 -0.033211153 -0.052418582 5.5173605e-40
0.076369025 -0.031481069 -0.051866144 4.5953902e-40
-0.00094886729 -0.026231937 -0.052327115 1.6570032e-39
0.0023521751 -0.027039438 -0.0523174 1.2882207e-39
0.0067396159 -0.028405016 -0.05182061 1.0116352e-39
0.074607998 -0.029893022 -0.054270774 6.4285548e-40
0.078060031 -0.02798162 -0.052719735 5.5137591e-40
0.082152352 -0.026329206 -0.052498601 1.0109163e-39
-0.0061202967 -0.020753646 -0.052715071 1.3793359e-39
-0.0025141796 -0.022327824 -0.052422702 7.3540704e-40
0.0012046546 -0.02418166 -0.051908962 7.3504691e-40
0.079319805 -0.023687942 -0.052203685 6.4321281e-40
0.082223572 -0.022263419 -0.052533481 9.1943957e-40
-0.010243898 -0.019234311 -0.052769631 2.1090471e-38
-0.0075882613 -0.01751074 -0.052572444 1.1953048e-39
-0.0046075583 -0.017718762 -0.054603517 1.0101933e-39
0.083399452 -0.017969716 -0.052417405 1.0119939e-39
0.085336685 -0.016757216 -0.052409675 5.5101578e-40
-0.010776984 -0.012033559 -0.052337371 9.1907803e-40
-0.0093567278 -0.013245537 -0.052500814 1.0112751e-39
0.084029853 -0.012409952 -0.052607741 7.3504691e-40
0.085572593 -0.012744352 -0.052125238 5.5137311e-40
-0.011832482 -0.0077430648 -0.052229904 1.0116338e-39
-0.0092569003 -0.0075259139 -0.053890426 4.5953902e-40
0.083567716 -0.0073392559 -0.052495603 1.1949503e-39
0.086072214 -0.0077441349 -0.052728932 8.2760267e-40
-0.015323326 -0.0029369574 -0.050970536 1.4733196e-39
-0.012407974 -0.0022274831 -0.052373491 1.0119939e-39
-0.0092976782 -0.0039498061 -0.053296402 5.5137451e-40
0.083146796 -0.002415932 -0.052616421 1.1034693e-39
0.086202361 -0.0031219842 -0.052258726 1.3796974e-39
-0.015437484 0.0030168546 -0.052735869 3.6734198e-40
-0.012242847 0.0020306988 -0.052696835 9.2051576e-40
-0.0095303971 0.0037012466 -0.052234281 7.3720771e-40
0.078876726 0.0030381433 -0.052547887 1.1953048e-39
0.082444131 0.0016705808 -0.052395273 3.041381e-39
-0.015308144 0.0069723283 -0.052035637 6.4285128e-40
-0.012276775 0.0073554385 -0.052758813 3.2228912e-39
-0.0081014615 0.0074901809 -0.05205249 1.0130729e-39
0.077070944 0.0075744372 -0.052532084 2.0250669e-39
0.080461115 0.0064165639 -0.051226407 1.0691113e-38
-0.011279825 0.011485931 -0.052628003 3.4076426e-39
-0.0073381248 0.012587519 -0.052242205 8.279614e-40
-0.0048164334 0.01274656 -0.051434968 1.0119939e-39
0.073208652 0.012757709 -0.052526988 3.2236044e-39
0.075626671 0.01152187 -0.052274805 5.8972777e-39
-0.0065008602 0.01720714 -0.05307135 8.2724113e-40
-0.0041217576 0.01776238 -0.052025888 7.3540564e-40
0.069368131 0.01814233 -0.052925497 8.2760267e-40
0.071628064 0.016660655 -0.052530449 1.1956607e-39
0.075831838 0.017127598 -0.050925206 1.5667114e-38
-0.0060612857 0.022132248 -0.053410798 5.7074844e-39
-0.0037150772 0.022804486 -0.052482784 1.104184e-39
0.068246342 0.022777263 -0.052645031 6.4357014e-40
0.071299769 0.022057816 -0.051180243 9.1908083e-40
0.078677036 0.022686264 -0.051535062 9.5847316e-39
0.082573764 0.023066411 -0.052085351 2.2098168e-39
-0.0055416301 0.025060281 -0.053479161 5.5101438e-40
-0.002034039 0.027518289 -0.052535158 5.5173324e-40
0.00048367243 0.028955013 -0.0529944 9.1943957e-40
0.06440451 0.028864402 -0.054284137 3.5938233e-39
0.06703192 0.027387884 -0.052145362 1.1038266e-39
0.078263178 0.027034231 -0.051546261 4.6994604e-39
0.080699824 0.025468793 -0.050407939 1.3811436e-39
-0.0008540703 0.031594925 -0.051906705 2.7550789e-40
0.0022832188 0.032461051 -0.052561399 6.4321001e-40
0.0065588453 0.033491489 -0.052804198 1.0123485e-39
0.010881975 0.033922184 -0.052920759 1.104191e-39
0.063571893 0.032844622 -0.05239531 1.3796946e-39
0.066654705 0.03335505 -0.05212418 1.0112723e-39
0.07272055 0.03323495 -0.052302666 7.9227075e-39
0.076405667 0.031763267 -0.052569818 4.5143517e-39
0.002675646 0.035733063 -0.052474003 2.7550929e-40
0.0075090835 0.037064608 -0.052477427 2.7550789e-40
0.012601516 0.037522275 -0.052505478 5.5137451e-40
0.017166037 0.039104864 -0.052768897 3.6770352e-40
0.021940527 0.039336734 -0.052816421 1.0127142e-39
0.027707206 0.039622404 -0.053515822 1.8402972e-40
0.032612219 0.039467402 -0.053218503 2.5803916e-39
0.037798982 0.03919863 -0.052652601 2.7644242e-39
0.04252477 0.038614064 -0.052885987 7.3648884e-40
0.04750612 0.037777863 -0.052854721 3.4130334e-39
0.052500352 0.038275082 -0.05274694 3.2272086e-39
0.057688095 0.037516322 -0.052578148 8.2868587e-40
0.061659884 0.036305849 -0.052633721 7.3612591e-40
0.067384832 0.035761211 -0.052971259 6.4357154e-40
0.071903996 0.03528323 -0.051353812 1.1885316e-38
0.0091227144 0.041607302 -0.052059364 2.7550649e-40
0.011866139 0.042020455 -0.052710485 6.4465054e-40
0.017690096 0.040861562 -0.051817868 9.1835496e-41
0.022739105 0.040959548 -0.052136343 9.2123603e-40
0.027322372 0.040843561 -0.052227154 4.606892e-39
0.032733768 0.040591881 -0.052464247 4.6998065e-39
0.037427824 0.040797222 -0.053152096 1.9353922e-39
0.043057077 0.041502513 -0.053145543 2.3970864e-39
0.047278479 0.043793533 -0.054734483 5.8929575e-39
0.053725228 0.043795671 -0.053093217 5.9887419e-39
0.056211729 0.041231234 -0.05246659 1.8410385e-39
0.012945042 0.046252277 -0.05275549 1.2352418e-38
0.015053464 0.047748767 -0.053658955 2.0182564e-38
0.05120182 0.045150299 -0.053525865 7.3709504e-39
0.030190362 -0.055167433 -0.048086435 1.4737022e-39
0.038521655 -0.056667566 -0.047536388 1.8058076e-38
0.040284716 -0.056553468 -0.048569836 1.5567713e-38
0.032684244 -0.052415408 -0.047337804 1.103828e-39
0.037695713 -0.051515181 -0.04702653 1.3804177e-39
0.042393081 -0.052016571 -0.047713634 9.1907943e-40
0.047340635 -0.051340923 -0.047321528 6.4321141e-40
0.052029453 -0.051228952 -0.047124594 1.1971055e-39
0.02431136 -0.045436457 -0.046098862 8.26881e-40
0.027707372 -0.047078505 -0.04797129 6.4392747e-40
0.032515012 -0.048584685 -0.047559407 1.0112737e-39
0.036938958 -0.048370939 -0.047699727 2.9477322e-39
0.042480662 -0.049436413 -0.047394127 1.0123653e-39
0.048460096 -0.049091786 -0.048244793 1.1049112e-39
0.053307407 -0.048595354 -0.047360212 7.3576857e-40
0.05752125 -0.047066078 -0.047464233 7.3576998e-40
0.060968332 -0.045954868 -0.04727624 8.2796841e-40
0.0038543446 -0.040415823 -0.045453254 4.5136118e-39
0.0077445246 -0.040766239 -0.046127502 2.5796728e-39
0.019883957 -0.040337335 -0.048204023 1.8367099e-40
0.022905473 -0.041766394 -0.047274776 1.3811366e-39
0.025999684 -0.043220431 -0.048082419 4.882767e-39
0.032247152 -0.042057708 -0.046721663 8.5702237e-39
0.035410855 -0.044067882 -0.047443323 1.0691059e-38
0.059391934 -0.044769567 -0.047602214 2.8025969e-45
0.06291423 -0.043374822 -0.047374893 1.0123541e-39
0.066570334 -0.041318838 -0.047446709 1.8417532e-39
-0.0057660765 -0.035684507 -0.045484543 1.8388735e-39
-0.0017866476 -0.036725655 -0.046356738 6.2631876e-39
0.0031347319 -0.037461735 -0.046428587 1.1516538e-38
0.0073294668 -0.037042074 -0.04665805 4.792735e-39
0.013610432 -0.036418337 -0.046985626 2.0257815e-39
0.017348399 -0.037745699 -0.047482122 1.2889381e-39
0.02131905 -0.038686346 -0.047600076 2.6707908e-39
0.028966373 -0.039797276 -0.045403741 3.8693368e-39
0.068845421 -0.038283102 -0.047806002 1.0119939e-39
0.071604751 -0.036492072 -0.047246844 6.4357014e-40
-0.012735082 -0.031874191 -0.045997582 2.2665016e-38
-0.0076740193 -0.032837495 -0.046540353 7.6439598e-39
-0.0033971327 -0.033446185 -0.047191571 2.7550789e-40
0.0026683765 -0.0326294 -0.046699334 3.0410124e-39
0.0077207182 -0.032445762 -0.04738415 3.1321305e-39
0.012193912 -0.033220366 -0.047634166 1.472249e-39
0.015704233 -0.034761198 -0.049497705 2.0275766e-39
0.073565222 -0.033224721 -0.047495026 1.4733322e-39
0.077024043 -0.03211727 -0.047321234 1.0123541e-39
-0.0010652617 -0.026798923 -0.046969708 6.4320861e-40
0.0023939721 -0.027386064 -0.047459349 1.6573619e-39
0.0068991953 -0.028641099 -0.048104063 1.1960237e-39
0.07398136 -0.029536031 -0.049548715 3.6734198e-40
0.078655645 -0.027904624 -0.047663979 5.5173605e-40
0.081295893 -0.026148476 -0.047743872 8.279628e-40
-0.0066516884 -0.02194128 -0.047233474 1.0123527e-39
-0.0025053208 -0.022940038 -0.04756796 6.4321281e-40
0.00038265809 -0.024154894 -0.04851114 1.1031134e-39
0.079632342 -0.024042372 -0.049580701 7.3504691e-40
0.082529828 -0.022387467 -0.047576103 7.3576857e-40
-0.010816623 -0.015912838 -0.046456069 0
-0.007880467 -0.017714227 -0.048030727 1.2882207e-39
-0.0043913065 -0.019675283 -0.047513448 1.0116338e-39
0.083813712 -0.018075787 -0.047371555 1.2885808e-39
0.085540809 -0.016899606 -0.047657035 1.4740539e-39
-0.011195268 -0.012073996 -0.047435991 8.2724254e-40
-0.0091639832 -0.012877565 -0.047569472 1.1956663e-39
0.084141552 -0.012469767 -0.047550518 6.4321281e-40
0.086147144 -0.012658419 -0.047434803 4.5917888e-40
-0.011969751 -0.0076161665 -0.047258288 1.1034679e-39
-0.0095700081 -0.008093698 -0.047363907 3.222887e-39
0.083533928 -0.0074522756 -0.047738936 1.0116338e-39
0.086750969 -0.0073657972 -0.047731336 9.1943957e-40
-0.015993733 -0.0023726136 -0.046817876 2.2094427e-39
-0.012613768 -0.0023855628 -0.047518343 8.2724394e-40
-0.0092765344 -0.0010511677 -0.046327941 1.1960237e-39
0.082089834 -0.0025097674 -0.047281478 9.197983e-40
0.085765831 -0.0022050191 -0.04746367 1.2878634e-39
-0.015747588 0.0004905099 -0.048625752 2.3916886e-39
-0.012580999 0.0025034202 -0.047743332 5.5137591e-40
-0.0082265288 0.0026819312 -0.047155168 9.208745e-40
0.078671813 0.0027833015 -0.047476463 9.1944237e-40
0.082789116 0.0020036802 -0.047436018 2.7636969e-39
-0.015216477 0.0070668962 -0.049322762 3.1288893e-39
-0.012491583 0.0072928779 -0.047432542 4.4203484e-39
-0.0081160273 0.0074938056 -0.047433406 2.1186876e-39
-0.0041117463 0.0079457238 -0.046748534 1.5637272e-39
0.073975772 0.0095069632 -0.045880958 5.7128682e-39
0.077834554 0.0072988002 -0.047704045 1.6566459e-39
0.080987826 0.006751949 -0.047191311 7.8315811e-39
-0.0064003491 0.012225276 -0.047190357 2.5796602e-39
-0.0035017501 0.01317126 -0.047311909 7.3612591e-40
0.072979182 0.012882051 -0.048874851 7.3540564e-40
0.076672047 0.01231066 -0.04769313 7.9241494e-39
0.083603799 0.014509393 -0.047274135 2.0254242e-39
0.086804941 0.013307777 -0.046118543 9.027246e-39
-0.0051971916 0.017443795 -0.048838235 7.3540704e-40
-0.0035331047 0.017777033 -0.04703347 7.3576577e-40
0.072323963 0.017546868 -0.04765296 6.9107346e-39
0.077557757 0.017547935 -0.048138805 8.3851234e-39
0.08216209 0.017764894 -0.047041263 2.8548275e-39
0.085565582 0.016547551 -0.0457398 1.0221809e-38
-0.0054276767 0.023010146 -0.047468141 7.3576857e-40
-0.0036839515 0.022455771 -0.047381371 6.4357154e-40
0.00053665042 0.024485681 -0.045220472 9.1835496e-41
0.069980979 0.023950864 -0.048853278 4.5918309e-40
0.072001278 0.022174589 -0.048411161 1.0414522e-38
0.077892341 0.022345295 -0.047882739 1.3736444e-38
0.081955694 0.022700671 -0.047195252 3.223973e-39
0.08598502 0.02232039 -0.045564175 3.9586485e-39
-0.0055828206 0.025321838 -0.045468871 7.3612591e-40
-0.0028138433 0.027468685 -0.04741744 9.197969e-40
0.00015799864 0.029758403 -0.04865573 1.0130715e-39
0.069295019 0.028059466 -0.049611829 9.187249e-40
0.072325632 0.028055241 -0.048393186 1.1426497e-38
0.078438289 0.028334348 -0.047849104 8.2029013e-39
0.080989145 0.026551388 -0.047023028 4.6043851e-39
0.085099787 0.027031183 -0.048205584 2.2994929e-39
-0.0013250681 0.031464707 -0.047436472 4.5990055e-40
0.0019279646 0.033236507 -0.047674522 6.4392887e-40
0.0077372338 0.033641234 -0.047726419 1.6570018e-39
0.010364234 0.034507215 -0.04835017 1.2882235e-39
0.059855293 0.034398243 -0.04905986 1.1949531e-39
0.063728757 0.034246452 -0.048480317 8.2724254e-40
0.067928851 0.033539068 -0.048211355 2.1176198e-39
0.073086597 0.033232819 -0.04755858 8.4776777e-39
0.077223353 0.032043688 -0.047109194 6.263912e-39
0.0037107489 0.036234118 -0.046803307 5.5245351e-40
0.0072586993 0.037407838 -0.047716696 3.6770352e-40
0.012489087 0.038170792 -0.047521763 5.5173465e-40
0.017007956 0.03865042 -0.0470859 6.4321141e-40
0.022004779 0.039279193 -0.047642078 3.1321291e-39
0.02738414 0.039825499 -0.047535382 1.0230823e-38
0.033759274 0.038975891 -0.048040833 1.0230458e-38
0.037629463 0.039074022 -0.047497116 8.847898e-39
0.042377491 0.038982064 -0.047470208 1.1052686e-39
0.047686413 0.038115282 -0.047432534 2.5825482e-39
0.052787337 0.037552554 -0.0472412 2.2134126e-39
0.057861928 0.037346389 -0.047487307 6.4357435e-40
0.062443893 0.036376577 -0.047279909 6.4321141e-40
0.067440972 0.036065765 -0.04741051 5.5137591e-40
0.072622024 0.036715712 -0.04690617 1.3268255e-38
0.076486826 0.03547059 -0.046011627 1.0964458e-38
0.0078515541 0.041505426 -0.04729367 1.8367239e-40
0.012449409 0.042200502 -0.047397718 1.4729693e-39
0.017699391 0.041309509 -0.047206137 1.8367099e-40
0.02234699 0.041708592 -0.047636438 2.0261403e-39
0.027664321 0.041133691 -0.047662187 9.862396e-39
0.032290332 0.041060079 -0.047342524 8.7578562e-39
0.037217215 0.040255543 -0.047641501 8.4802043e-39
0.042501122 0.040176567 -0.045728099 6.4285548e-40
0.053638823 0.041551363 -0.048341319 2.209105e-39
0.055992596 0.040698752 -0.048883311 1.2867886e-39
0.07138817 0.042040281 -0.045911685 1.6679108e-38
0.011623677 0.046532277 -0.049564846 2.0365876e-38
0.043649308 -0.06086034 -0.040459953 7.1631729e-39
0.039448678 -0.05715742 -0.041878231 9.8451278e-39
0.040970366 -0.05618649 -0.04226473 7.6335159e-39
0.029007267 -0.053035796 -0.042517796 7.1869193e-39
0.0328108 -0.051712763 -0.042849615 6.4357294e-40
0.037847821 -0.051734272 -0.042660356 1.5640915e-39
0.042407375 -0.05228243 -0.042688999 1.0105576e-39
0.047521006 -0.051587991 -0.042605378 6.4321281e-40
0.052394535 -0.051510189 -0.042495828 1.2889424e-39
0.055133682 -0.050428849 -0.043439724 5.5173885e-40
0.0082796868 -0.045780417 -0.040572438 3.1271068e-39
0.011839855 -0.046686001 -0.041267745 2.8519493e-39
0.027780604 -0.047034007 -0.042422518 1.4718917e-39
0.032631919 -0.047697078 -0.042340454 1.1963852e-39
0.036926221 -0.048674434 -0.042908132 1.5680614e-39
0.042354953 -0.049018119 -0.043379497 2.2991356e-39
0.047722567 -0.048765458 -0.042608455 2.9459498e-39
0.052983835 -0.048749089 -0.042384192 1.4726133e-39
0.05739139 -0.04701896 -0.042516313 6.4357294e-40
0.060785398 -0.045907903 -0.042867985 9.1944377e-40
-0.0053252056 -0.040913597 -0.042097993 2.3304241e-38
-0.0010113383 -0.041071128 -0.041248668 1.2062513e-38
0.0025876842 -0.041706618 -0.041929897 1.1238866e-38
0.0073048584 -0.042066325 -0.042237688 5.433064e-39
0.012284438 -0.042456985 -0.042796649 1.5622894e-39
0.017989494 -0.041015826 -0.042085107 3.035986e-39
0.022651447 -0.041769546 -0.042449631 1.2878549e-39
0.02802515 -0.04299432 -0.042641152 9.1943676e-40
0.031434502 -0.043603268 -0.043070037 9.2051997e-40
0.059616312 -0.044990346 -0.043827668 1.2878704e-39
0.063079 -0.04348148 -0.042480931 6.4393448e-40
0.066769451 -0.041614175 -0.042531312 1.4729749e-39
-0.0063745785 -0.036677007 -0.041759789 8.1024072e-39
-0.0024614104 -0.037697233 -0.042221174 1.133107e-38
0.0022145349 -0.037972633 -0.043279387 1.105592e-38
0.0075657121 -0.037869461 -0.043254189 1.4193458e-38
0.012319427 -0.037785422 -0.04314734 3.7713874e-39
0.017289108 -0.038439468 -0.042818014 1.4715301e-39
0.02151534 -0.03982231 -0.043430515 8.2724394e-40
0.026906028 -0.039161157 -0.040861465 1.103828e-39
0.068748072 -0.038397674 -0.042450812 7.3576717e-40
0.071666658 -0.03671968 -0.042574588 6.4429181e-40
-0.011659175 -0.032413598 -0.042269319 1.7690401e-38
-0.0083290832 -0.033134218 -0.042330071 5.1543135e-39
-0.0021484601 -0.032838028 -0.041835163 1.2352426e-38
0.0021392135 -0.032457173 -0.043533403 8.2043265e-39
0.0079898601 -0.033530623 -0.043885566 4.0540938e-39
0.011896826 -0.03374004 -0.044050541 1.6548466e-39
0.069022387 -0.034483474 -0.041511979 7.3504691e-40
0.073228493 -0.033146147 -0.042636063 1.0119939e-39
0.076502912 -0.031542771 -0.042399466 9.2051576e-40
-0.016477603 -0.025310937 -0.041004863 2.2389866e-38
-0.012632571 -0.02827194 -0.041341692 7.6446675e-39
-0.0073869107 -0.026834292 -0.042137675 2.7551069e-40
-0.0019597546 -0.027479457 -0.042355299 2.4871212e-39
0.0022997651 -0.028844517 -0.043669991 2.1183373e-39
0.0073711015 -0.029987408 -0.044886522 1.2882179e-39
0.078430124 -0.028072778 -0.042542342 5.5137591e-40
0.080545209 -0.026172418 -0.042583853 2.7550929e-40
-0.011493807 -0.022444729 -0.041602146 1.011631e-39
-0.0075600324 -0.022592159 -0.042901564 6.4321281e-40
-0.0033771971 -0.023327278 -0.042907588 1.2882277e-39
0.079355262 -0.023703506 -0.040911451 4.5989915e-40
0.082579136 -0.022218321 -0.042682488 5.5137731e-40
-0.010354563 -0.017533157 -0.04351642 5.5101718e-40
-0.0080532851 -0.017305501 -0.042475991 1.2882193e-39
-0.0046324357 -0.019558555 -0.044413589 8.2724254e-40
0.083823994 -0.017665869 -0.042482026 9.1943817e-40
0.085523553 -0.016624285 -0.04273662 3.6806085e-40
-0.011317815 -0.011918252 -0.042656768 8.2724534e-40
-0.0092783123 -0.013116102 -0.042067181 1.0112751e-39
0.083884224 -0.012482243 -0.042510655 5.5137451e-40
0.086162068 -0.012837905 -0.042281076 2.7550789e-40
-0.015374336 -0.0055067092 -0.041282281 4.2038954e-45
-0.012095609 -0.0074982313 -0.042352132 7.3540704e-40
-0.0095879268 -0.0078910496 -0.043168433 1.4733308e-39
0.083336189 -0.0075681685 -0.042646952 8.2724394e-40
0.086259164 -0.0073885587 -0.042583037 5.5101578e-40
-0.01588328 -0.0024762126 -0.042864684 1.2882179e-39
-0.012824751 -0.0027227013 -0.042455062 5.5173605e-40
-0.0093125403 -0.00013982132 -0.044326216 6.4321141e-40
0.078681119 -0.00097840407 -0.041464418 6.4392887e-40
0.081773609 -0.0029958049 -0.042587865 1.1034707e-39
0.086029679 -0.0024265321 -0.042584188 4.5990195e-40
-0.012768735 0.002274432 -0.042530328 5.5173465e-40
-0.0084203649 0.0030792139 -0.042937845 5.0682233e-39
0.073024943 0.0047850125 -0.041746389 5.438124e-39
0.078389399 0.002119458 -0.042882532 1.2889396e-39
0.081579961 0.0027593155 -0.042134073 2.4864009e-39
0.085518122 0.0031817462 -0.041846782 1.0116324e-39
-0.012936188 0.0069500259 -0.042540647 5.433766e-39
-0.0078684026 0.0075770821 -0.042258494 1.1333542e-38
-0.0042385976 0.0078321407 -0.044192817 1.381847e-39
0.074114844 0.0072333864 -0.042826831 9.4025249e-39
0.07772401 0.0078544244 -0.042503744 6.7273943e-39
0.081339374 0.0075199353 -0.042279929 9.7666075e-39
0.087513193 0.0082042953 -0.042296305 1.1700541e-38
-0.01050109 0.01078039 -0.041368023 1.2716475e-38
-0.0074133403 0.012464944 -0.041988872 1.0595627e-38
-0.003315038 0.01252994 -0.042992465 3.7774845e-39
0.0727662 0.012265322 -0.044117879 1.0968058e-38
0.077146322 0.012606922 -0.04251828 1.2068652e-38
0.082692079 0.012329817 -0.042522162 1.4189478e-38
0.087003022 0.012776275 -0.042267635 1.1146647e-38
-0.0061430153 0.017346511 -0.041865289 6.0809221e-39
-0.0038146409 0.01759758 -0.043027155 4.146267e-39
0.07339038 0.015039358 -0.04383456 1.1153239e-38
0.077097803 0.017641896 -0.042839833 1.3366592e-38
0.08328709 0.01753821 -0.043325134 5.8029283e-39
0.086319625 0.017461732 -0.042171102 8.0058886e-39
-0.0060619414 0.022764118 -0.041936576 1.3800604e-39
-0.0034395361 0.022667367 -0.042808484 3.6734339e-40
0.0018390901 0.022821328 -0.044411868 5.5137311e-40
0.078600265 0.022129973 -0.043256652 1.936111e-38
0.08284355 0.022734463 -0.042630777 9.385586e-39
0.086151376 0.021880183 -0.041385192 1.0485092e-38
-0.005583623 0.026390921 -0.042659506 6.9967897e-39
-0.0034632366 0.027715003 -0.042542875 1.1960237e-39
0.0077253394 0.025551505 -0.043797486 7.350455e-40
0.07888709 0.028659675 -0.043374151 1.2157579e-38
0.081775628 0.027189348 -0.042401172 8.1794884e-39
0.086185977 0.025506269 -0.041766152 4.701617e-39
-0.001759448 0.031385232 -0.042560972 5.5137451e-40
0.0015115362 0.033215065 -0.042337324 6.4357154e-40
0.0060715028 0.034419253 -0.040429115 1.0116338e-39
0.07406377 0.033831365 -0.043075446 4.6990961e-39
0.07783068 0.032861359 -0.042718641 1.1226978e-38
0.080349773 0.031108897 -0.041696936 1.0195906e-38
-0.00074839219 0.038593054 -0.041795231 9.3041594e-39
0.0029447766 0.037013773 -0.042946771 1.8421049e-39
0.0073372964 0.03736325 -0.042464912 6.4321141e-40
0.012460111 0.037963375 -0.042264279 5.5137591e-40
0.017235486 0.03844757 -0.042512782 4.5954182e-40
0.021493059 0.039416224 -0.042055778 6.4321141e-40
0.034127541 0.039673001 -0.043426152 9.219563e-41
0.037426099 0.039202638 -0.043290894 5.5245491e-40
0.042666581 0.038758524 -0.04271232 9.197969e-40
0.047537003 0.038762446 -0.042767901 4.5954042e-40
0.05234183 0.038222656 -0.04220175 5.5137872e-40
0.057393547 0.038214948 -0.042470053 5.5101578e-40
0.062594518 0.036635015 -0.042449418 4.5917748e-40
0.067342341 0.036749918 -0.042788256 6.4321141e-40
0.072867095 0.037533786 -0.04249404 1.0592065e-38
0.076622553 0.036942285 -0.042134687 1.2786752e-38
0.0033943262 0.040074535 -0.044142947 2.2860794e-38
0.0076544597 0.041296829 -0.042537611 3.6734759e-40
0.012659852 0.041992031 -0.042495329 1.3825743e-39
0.017820802 0.04120066 -0.04263249 1.8367099e-40
0.022650726 0.041778844 -0.042943697 8.2832154e-40
0.027354812 0.042320535 -0.042234723 2.6711523e-39
0.032253183 0.042077076 -0.042514205 8.29039e-40
0.037859827 0.042018112 -0.041528232 4.5953902e-40
0.0420091 0.041501563 -0.041625693 8.268838e-40
0.047497392 0.04069978 -0.040430181 7.3504691e-40
0.072095059 0.042272601 -0.042188969 1.7135453e-38
0.075150914 0.040098134 -0.041742083 1.1314151e-38
0.024561524 0.048598893 -0.040694486 0
0.028341571 0.047227241 -0.040793739 6.5415681e-39
0.032122109 0.047548655 -0.040914766 5.7125305e-39
0.037149575 0.04757145 -0.040815547 8.2868167e-40
0.040995348 0.047840886 -0.04079498 1.1056287e-39
0.066666052 0.046361502 -0.040568408 1.8896482e-38
0.071456924 0.046055883 -0.041170362 2.1102347e-38
0.029100422 0.051820554 -0.041089751 1.8704914e-38
0.031548202 0.051289182 -0.041691318 2.1286033e-38
0.039883398 0.050927263 -0.040705673 4.886367e-39
0.042071365 0.051801674 -0.040873684 1.3824307e-38
0.043749072 0.055501942 -0.041291989 2.2395981e-38
0.045473479 0.055889044 -0.040710978 2.193536e-38
0.042176612 -0.060445618 -0.037476853 7.2550126e-39
0.042091858 -0.056901366 -0.037593231 5.4197404e-39
0.00014035776 -0.051287871 -0.035837576 2.1086539e-38
0.012980643 -0.050403811 -0.037210748 1.5196793e-38
0.016739044 -0.051057443 -0.035905734 1.3451193e-38
0.027996873 -0.051256519 -0.037056349 8.6566502e-39
0.032409925 -0.051496744 -0.037135813 1.0112723e-39
0.03784376 -0.051176734 -0.037352476 1.011638e-39
0.042597085 -0.051832668 -0.037555773 1.4715371e-39
0.047115531 -0.051245172 -0.037247766 1.3804205e-39
0.052959997 -0.05148467 -0.037945803 1.3793373e-39
0.055354781 -0.05010974 -0.038820066 7.3540704e-40
-0.0013801921 -0.04619883 -0.036619335 1.6101481e-38
0.0029372359 -0.046418458 -0.036476087 1.241544e-38
0.0082338881 -0.046373848 -0.036813337 8.826304e-39
0.012076121 -0.047617212 -0.037190143 9.8501697e-39
0.015936956 -0.04715411 -0.037001118 7.7368645e-39
0.027926609 -0.047418978 -0.037746873 5.0646276e-39
0.032641925 -0.047768321 -0.037492897 9.198011e-40
0.037055839 -0.048096098 -0.037898615 1.3800562e-39
0.042655937 -0.049440999 -0.037341494 1.3793359e-39
0.047566555 -0.049342815 -0.038233027 1.4718959e-39
0.052412789 -0.048866034 -0.037488434 1.1041896e-39
0.05715242 -0.047170084 -0.037539434 7.3576717e-40
0.060804069 -0.045378633 -0.036725964 9.2015843e-40
-0.0057258336 -0.041044194 -0.037306547 2.2473408e-38
-0.0021786154 -0.041356429 -0.037447155 1.2606677e-38
0.0023666578 -0.042486519 -0.037895679 1.0668408e-38
0.0071782484 -0.043285642 -0.038102124 1.0213554e-38
0.011969059 -0.042977538 -0.037529469 8.5659119e-39
0.0180087 -0.042391874 -0.038152903 5.8029143e-39
0.022684127 -0.042550571 -0.037526377 9.9481107e-39
0.02757608 -0.042654589 -0.037885644 4.0522819e-39
0.032117359 -0.044179514 -0.037847616 1.378617e-39
0.035943799 -0.04450985 -0.035964794 1.6534075e-39
0.059342034 -0.044616953 -0.03798284 6.4357435e-40
0.06257873 -0.043288216 -0.037742071 8.279642e-40
0.066658527 -0.041540705 -0.037632644 1.2893039e-39
-0.011055954 -0.035841405 -0.03631521 1.1505374e-38
-0.0071847942 -0.037098438 -0.037670106 1.1047268e-38
-0.0034272885 -0.038822029 -0.038286056 1.0030604e-38
0.00077870488 -0.039809242 -0.039266054 7.2636278e-39
0.0075151096 -0.039234251 -0.038028818 1.685487e-38
0.0135617 -0.03909155 -0.038481299 5.433787e-39
0.016585043 -0.038350422 -0.03766742 9.9488407e-39
0.024148703 -0.03956987 -0.036893852 7.2780303e-39
0.068054914 -0.038306277 -0.037404537 1.1963894e-39
0.071493976 -0.037068773 -0.037067499 3.6842659e-40
-0.015200522 -0.030009668 -0.035405483 1.824067e-38
-0.012213715 -0.032547511 -0.03733439 1.1140892e-38
-0.0078673018 -0.032739043 -0.037609927 1.2170189e-38
-0.0035673617 -0.032188982 -0.03845514 2.2126951e-38
0.069263473 -0.034459822 -0.037501667 9.1872771e-40
0.073524073 -0.033539668 -0.037645277 6.4357154e-40
0.076661609 -0.031437371 -0.037638709 7.3576998e-40
-0.02002234 -0.025122151 -0.037820548 2.2388426e-38
-0.016813207 -0.026811222 -0.037083473 1.7507079e-38
-0.013129377 -0.027883241 -0.037521608 1.2528512e-38
-0.0073364791 -0.027627895 -0.036919195 1.3733916e-38
-0.0032100992 -0.027932553 -0.038216099 7.6555079e-39
0.078787729 -0.027912892 -0.037374742 5.5173745e-40
0.080739148 -0.026316192 -0.037753236 7.3505391e-40
-0.017416909 -0.023603776 -0.03790094 1.3637381e-38
-0.011916197 -0.022161646 -0.03730331 9.2127106e-39
-0.0071194642 -0.022743188 -0.036935706 8.7571499e-39
-0.0040452322 -0.022781361 -0.039244793 5.5317938e-40
0.079554215 -0.023439545 -0.037897259 2.7586802e-40
0.081686817 -0.022361692 -0.037527312 8.2724674e-40
0.085277885 -0.021166716 -0.036036894 2.5789595e-39
-0.010455871 -0.017767956 -0.036793709 7.2823744e-39
-0.008620441 -0.017232915 -0.037736528 3.8707773e-39
0.083525576 -0.017637797 -0.037489168 8.2760407e-40
-0.010707594 -0.012005878 -0.036951017 6.7263083e-39
-0.0093381321 -0.012711489 -0.037613869 2.2116119e-39
0.083883367 -0.01278724 -0.037424557 7.3540704e-40
0.085156016 -0.011669522 -0.037755806 3.6734339e-40
-0.015398283 -0.0052635269 -0.03695583 1.0504175e-38
-0.012082793 -0.0073191449 -0.03740051 5.7114361e-39
-0.0092934817 -0.0089892913 -0.038385671 6.4429041e-40
0.083199449 -0.0075603505 -0.037593886 1.0112751e-39
0.085687026 -0.0076703657 -0.037435394 4.5918309e-40
-0.01604723 -0.0018841024 -0.037748527 9.5789988e-39
-0.013141952 -0.0023931188 -0.037587103 4.4225036e-39
0.078208469 -0.00163906 -0.037840277 8.2723833e-40
0.081766479 -0.0033174416 -0.037494849 1.0109135e-39
0.086084113 -0.0028852762 -0.037840046 9.1835496e-41
-0.015776558 0.0031317794 -0.037604764 8.6570299e-39
-0.012807338 0.0022358447 -0.037310433 4.2381151e-39
0.073527589 0.0049595889 -0.038768169 2.119789e-39
0.077118605 0.0031387624 -0.03698498 2.3023698e-39
0.083296701 0.0030134197 -0.037089072 1.3807694e-39
0.086541034 0.0031992884 -0.037170317 9.1835496e-41
-0.01528883 0.0052347146 -0.037546068 6.3524895e-39
-0.01180377 0.0072754906 -0.03715511 5.70639e-39
-0.0084533617 0.0075143101 -0.03850846 1.1608319e-38
0.078076385 0.0075521083 -0.037459943 4.7909217e-39
0.083891943 0.0080181612 -0.037855357 9.1190745e-39
0.086910278 0.007597208 -0.03705461 5.1539407e-39
-0.010976166 0.01183249 -0.037598863 6.4457641e-39
-0.0083228955 0.01299324 -0.037768796 7.8308524e-39
0.078029379 0.012178093 -0.037638254 1.2716886e-38
0.082045794 0.012663029 -0.037487276 1.3359352e-38
0.087167419 0.012588825 -0.037500322 7.8182547e-39
-0.010154192 0.017044976 -0.03561363 2.8469032e-39
-0.0074736387 0.017483097 -0.037561875 3.1303186e-39
-0.0019850843 0.019982994 -0.038984828 0
0.079376362 0.016268063 -0.037741836 1.6866051e-38
0.08194086 0.018068084 -0.037087403 1.2433448e-38
0.086793259 0.017427191 -0.037414912 8.6372212e-39
-0.0065952055 0.02246049 -0.037407078 3.4079957e-39
-0.0039718961 0.023067916 -0.037458025 4.6965765e-39
0.083335102 0.02286328 -0.03740833 1.0202023e-38
0.086249404 0.02210317 -0.037766814 1.0670575e-38
-0.0056492705 0.026431538 -0.03812426 3.7724608e-39
-0.0037912608 0.027920613 -0.037458535 3.0377754e-39
0.079197519 0.028158268 -0.036841378 7.5348337e-39
0.081909649 0.027330609 -0.037787277 7.5344736e-39
0.085797422 0.025722668 -0.037644923 1.9357635e-39
-0.0013709232 0.031362534 -0.037762061 2.2108902e-39
0.0018896565 0.033372842 -0.037434038 1.4733266e-39
0.0061472268 0.03462217 -0.037431847 7.3540564e-40
0.074493326 0.034150004 -0.036494687 1.1038294e-39
0.077846296 0.032699119 -0.037421159 9.3733429e-39
0.080726229 0.031034911 -0.037758846 1.0011874e-38
0.002978299 0.036611732 -0.037729632 3.6852959e-39
0.0073813112 0.037860014 -0.037383985 1.5655194e-39
0.012503415 0.037868377 -0.037183329 5.5174025e-40
0.0165745 0.037934281 -0.038362991 6.4357435e-40
0.020003483 0.039320588 -0.039763406 9.197955e-40
0.047761563 0.0388209 -0.037908621 3.6770632e-40
0.052390441 0.039169751 -0.038303874 6.4357154e-40
0.058088209 0.038854029 -0.038241901 7.3576717e-40
0.062466465 0.037975304 -0.037692964 5.5137591e-40
0.067618787 0.037201848 -0.037773069 3.6734479e-40
0.073281482 0.037337556 -0.037436198 8.9274946e-39
0.076312914 0.037023116 -0.037619557 1.2874254e-38
0.00036137924 0.040539503 -0.038757671 1.6310683e-38
0.0094826575 0.04007192 -0.037141144 1.9314237e-39
0.012945424 0.041414797 -0.037362546 2.7644256e-39
0.017790606 0.042567231 -0.037458163 4.5157852e-39
0.022580396 0.043175533 -0.037903044 6.8185179e-39
0.026831236 0.044138465 -0.039045505 8.3876485e-39
0.03704641 0.043768436 -0.03987455 6.4321001e-40
0.04303905 0.043561533 -0.039428987 3.6734198e-40
0.047155958 0.04277027 -0.038068194 1.105263e-39
0.053156164 0.041526236 -0.036992572 2.0265032e-39
0.056928061 0.041391186 -0.036338523 8.290418e-40
0.069632575 0.044899777 -0.039330844 2.0189067e-38
0.072861739 0.042398486 -0.037538875 1.1588563e-38
0.018636664 0.046394058 -0.036178306 1.0135757e-38
0.022678742 0.047407787 -0.036516976 1.1889645e-38
0.027434332 0.047687247 -0.037942782 1.4194887e-38
0.032648608 0.048356559 -0.039330967 2.762269e-39
0.037586726 0.049187493 -0.039081808 8.2832013e-40
0.042650133 0.049078576 -0.038518041 1.2900115e-39
0.047757708 0.047185794 -0.037715457 3.5023409e-39
0.051163036 0.047140766 -0.036671404 7.8312195e-39
0.067524977 0.04714578 -0.036989126 1.8702761e-38
0.070488572 0.045900848 -0.037286021 1.2792878e-38
0.017509665 0.051380306 -0.035708919 1.1150991e-38
0.023022359 0.052291378 -0.036510166 8.4737135e-39
0.027817052 0.052373424 -0.037013222 1.0408741e-38
0.032029387 0.05205464 -0.037557624 8.6573887e-39
0.037462045 0.05137739 -0.036971748 5.8904296e-39
0.042064004 0.052195583 -0.037184719 1.0596735e-38
0.046828877 0.051135987 -0.03680839 1.0408715e-38
0.06685394 0.050239362 -0.035750419 1.8151729e-38
0.02445296 0.056788348 -0.036725678 2.2202216e-38
0.026632754 0.056064092 -0.036915198 2.1927803e-38
0.044265449 0.056350131 -0.038057841 2.2119753e-38
0.046193507 0.056457534 -0.036849525 2.1935719e-38
0.039788038 -0.058405206 -0.0323289 6.9795089e-39
0.041513473 -0.057200257 -0.032715283 5.6938106e-39
0.0026283294 -0.051990923 -0.032947738 1.3434274e-38
0.013633056 -0.050303694 -0.032123305 9.7432086e-39
0.016653843 -0.05212779 -0.032480583 1.2147502e-38
0.029170653 -0.051576104 -0.032590251 3.1260082e-39
0.032444235 -0.051161095 -0.032089382 1.1023861e-39
0.037595265 -0.05161389 -0.032170687 9.1944377e-40
0.042619187 -0.052106258 -0.032531023 1.839598e-39
0.047446474 -0.05154841 -0.032455366 1.011638e-39
0.052101631 -0.050925862 -0.033012547 1.6552109e-39
0.056172937 -0.05112537 -0.031558219 1.9317936e-39
0.0038114451 -0.047370154 -0.032935914 1.3432117e-38
0.0076508829 -0.047039568 -0.032550104 8.6328982e-39
0.012191191 -0.047998041 -0.03251791 1.0210665e-38
0.01723635 -0.048473988 -0.032205611 8.0987989e-39
0.020908684 -0.046093531 -0.031773373 9.3956473e-39
0.027903497 -0.047654696 -0.032672752 3.5891416e-39
0.032298967 -0.047888659 -0.032896522 4.5990055e-40
0.037571039 -0.047877084 -0.032277312 1.2878606e-39
0.041926652 -0.048766904 -0.032427788 2.5782364e-39
0.047774933 -0.049509715 -0.031784825 1.3800576e-39
0.052897003 -0.04867034 -0.032669172 1.1038294e-39
0.057372522 -0.047381554 -0.032769956 9.198011e-40
0.061628699 -0.046136286 -0.03222001 1.0119939e-39
-0.0070325299 -0.041695613 -0.032136824 1.5564121e-38
-0.0023614692 -0.041506916 -0.032837283 1.1400564e-38
0.0023896755 -0.043159328 -0.032583166 9.2771872e-39
0.006182821 -0.044470817 -0.032452375 8.9998814e-39
0.012657819 -0.043150112 -0.033052664 1.2435232e-38
0.017474523 -0.042886537 -0.032872781 1.1423246e-38
0.02312831 -0.042797666 -0.032842129 1.3081327e-38
0.027066546 -0.043371178 -0.032536555 1.0133951e-38
0.033267528 -0.043578781 -0.033273838 8.6591865e-39
0.036312118 -0.044731528 -0.033563688 1.9307104e-39
0.059360437 -0.044537492 -0.032762233 1.0112779e-39
0.063137248 -0.043371089 -0.032490335 8.2796701e-40
0.066673234 -0.041266363 -0.032605894 8.2832574e-40
0.070944905 -0.040018979 -0.030787647 4.5136202e-39
-0.011545952 -0.036161553 -0.032089602 1.1498499e-38
-0.0076927622 -0.037827875 -0.03281809 1.066804e-38
-0.0040103062 -0.039482955 -0.032491863 8.9080445e-39
0.017449597 -0.039415151 -0.034805961 1.1147741e-38
0.068496093 -0.038504403 -0.032639951 1.3807793e-39
0.071212567 -0.036741175 -0.032351334 6.4429461e-40
-0.015641043 -0.031645671 -0.031926736 1.0956856e-38
-0.012445203 -0.032726515 -0.032639369 1.0951463e-38
-0.0072054099 -0.033232383 -0.032520581 1.9353529e-38
0.068560734 -0.034711044 -0.034695134 3.4069293e-39
0.073165759 -0.033287115 -0.032496609 4.5954462e-40
0.076656356 -0.031531144 -0.032979783 5.5210038e-40
0.080210432 -0.030616216 -0.031913728 1.3793373e-39
-0.020655479 -0.025829827 -0.030888164 2.2942318e-38
-0.017034581 -0.027648609 -0.032236896 1.4274821e-38
-0.012418541 -0.027805261 -0.032146972 1.3175314e-38
-0.007964707 -0.027513826 -0.032865088 1.8064937e-38
-0.0043852557 -0.02816597 -0.034848817 2.1666001e-38
0.07432472 -0.029719613 -0.030082343 1.1038266e-39
0.078446276 -0.027810168 -0.032552019 6.4357575e-40
0.080593824 -0.026700081 -0.03155886 7.3541124e-40
-0.020964675 -0.021967407 -0.031098625 5.6959588e-39
-0.018002717 -0.023514606 -0.032606322 8.3789969e-39
-0.01275875 -0.022401532 -0.032380205 1.3177133e-38
-0.008325641 -0.021996295 -0.03326318 1.3639551e-38
0.079611152 -0.022841904 -0.032078698 1.1038294e-39
0.081837773 -0.022402663 -0.032540742 8.2796701e-40
-0.021977928 -0.018177381 -0.030512307 5.5130136e-39
-0.011511634 -0.017148392 -0.031846233 1.2532837e-38
-0.0092309806 -0.018102165 -0.033014446 1.557637e-38
0.083097227 -0.017553976 -0.032471605 5.5173745e-40
0.085206226 -0.016890466 -0.032400869 6.4321001e-40
-0.011562275 -0.012550792 -0.032291859 1.2349526e-38
-0.0097138369 -0.012458187 -0.0332545 1.3732822e-38
0.083856568 -0.012723157 -0.032673128 6.4321421e-40
0.085368089 -0.011432695 -0.032518707 3.6734339e-40
-0.012148965 -0.0073959902 -0.032478318 1.2532482e-38
0.082761474 -0.0074645397 -0.032544505 1.103112e-39
0.085932456 -0.0076372791 -0.032189518 1.836752e-40
-0.015770894 -0.0014500713 -0.032870799 1.2432733e-38
-0.012828105 -0.0030335707 -0.032431621 1.0965881e-38
0.078691125 -0.0015153196 -0.032550815 1.8403127e-39
0.082139544 -0.0029835447 -0.032414652 7.3540564e-40
0.086108059 -0.0029617385 -0.032111607 1.8367099e-40
-0.012420454 0.0023516077 -0.03255238 8.7517493e-39
0.074861899 0.0016396511 -0.03181389 3.0370622e-39
0.077337675 0.0037932305 -0.032087687 2.2094511e-39
0.082252972 0.00080332626 -0.032912843 9.1835496e-41
0.086846367 0.0027190931 -0.032548778 8.2651947e-40
-0.011473948 0.0074195089 -0.032471035 7.08251e-39
-0.0094775911 0.009986259 -0.032618787 7.5305121e-39
0.078333333 0.0070496798 -0.032670468 3.5898632e-39
0.081525199 0.008549124 -0.032358926 5.7031614e-39
0.087236695 0.0076490617 -0.032258816 4.2244328e-39
0.090034969 0.0051833801 -0.030866921 4.5917748e-40
-0.010717645 0.011944884 -0.03285953 6.4295707e-39
-0.0091217561 0.013355155 -0.031867951 7.0735038e-39
0.078067385 0.011612599 -0.032551885 5.0682289e-39
0.082541615 0.012586198 -0.032447882 1.0582686e-38
0.087480426 0.012425396 -0.032466173 7.6223462e-39
-0.010708101 0.017480917 -0.032837294 6.9845424e-39
-0.0078328475 0.017411176 -0.032455914 8.7402152e-39
0.08357086 0.018037267 -0.033039417 1.306692e-38
0.086599141 0.01720158 -0.032456942 8.8176496e-39
-0.0069666561 0.022317111 -0.032691114 1.1147029e-38
-0.0043486338 0.023774078 -0.032118216 1.0872608e-38
0.083115354 0.022579452 -0.032679316 9.9221965e-39
0.086405851 0.021553243 -0.032284915 1.7121373e-38
-0.0056633069 0.026523586 -0.03221152 9.4867934e-39
-0.0030165522 0.027808173 -0.032475378 9.4911094e-39
0.07894434 0.028268188 -0.032449942 8.7250952e-39
0.081737332 0.027391557 -0.033090517 7.5369931e-39
0.085121438 0.025667071 -0.034655884 6.4285968e-40
-0.0012907689 0.030985216 -0.032843933 1.0782214e-38
0.0020881903 0.032835979 -0.032444507 9.3088775e-39
0.0057470053 0.033760276 -0.03269057 6.4526025e-39
0.062884033 0.034591049 -0.030199409 2.7694562e-40
0.074301928 0.03332863 -0.031764328 5.7885327e-39
0.077136621 0.032486606 -0.032627199 7.1646134e-39
0.080186576 0.031169236 -0.030070871 2.3945696e-39
0.0041339151 0.03571371 -0.032129843 8.2950829e-39
0.0074844798 0.037557315 -0.032458801 9.3077845e-39
0.012598567 0.038119655 -0.032577969 9.3052818e-39
0.015257843 0.038683511 -0.032943729 6.0784432e-39
0.058359366 0.03873774 -0.033004649 1.847542e-40
0.062264256 0.037327658 -0.03283269 5.5245491e-40
0.067478247 0.036828861 -0.032698136 4.6025928e-40
0.073019743 0.037301999 -0.032596644 9.8487334e-39
0.075693943 0.037034895 -0.032539293 9.8303624e-39
0.0086782556 0.040894277 -0.032614339 1.3178192e-38
0.012376117 0.042237375 -0.032502018 1.1427202e-38
0.01719675 0.043973792 -0.032561891 1.3823933e-38
0.020417042 0.044313416 -0.034845546 1.0596382e-38
0.053252768 0.042263269 -0.033774216 5.8983539e-39
0.057459034 0.042574652 -0.03317368 2.5800371e-39
0.060170271 0.040024936 -0.031612396 9.3270426e-41
0.069129117 0.042501926 -0.031722762 1.287281e-38
0.073229596 0.042573996 -0.032626182 1.1118222e-38
0.014044927 0.047540378 -0.032225545 1.3548785e-38
0.017938567 0.047125675 -0.032227475 1.050525e-38
0.022026962 0.048013374 -0.033588819 1.2900555e-38
0.04839677 0.048650607 -0.032893971 1.0874042e-38
0.052368473 0.048289627 -0.032275613 1.0228297e-38
0.057386465 0.046900582 -0.031625088 4.2388326e-39
0.067430027 0.047969833 -0.032307487 1.1770436e-38
0.070908844 0.045620725 -0.032246038 9.9186021e-39
0.014191849 0.051289424 -0.031810082 9.5825904e-39
0.017665075 0.052351132 -0.032085601 8.7466962e-39
0.022328269 0.0531606 -0.032509014 1.0765997e-38
0.027188415 0.053591002 -0.03275875 1.0760605e-38
0.032835051 0.053526714 -0.032445565 8.1740836e-39
0.037685983 0.053141993 -0.032531094 8.9137969e-39
0.04254052 0.053034704 -0.03275783 1.1783024e-38
0.047240313 0.051733308 -0.032262195 9.3945627e-39
0.064706661 0.052356601 -0.031780772 1.8518318e-38
0.06607341 0.051265966 -0.032072905 1.9798982e-38
0.019630743 0.056431688 -0.031076971 9.9300956e-39
0.02247436 0.056904845 -0.032156385 1.9249805e-38
0.027616708 0.055648189 -0.031811167 1.3251686e-38
0.031441726 0.055465654 -0.0324434 8.0818866e-39
0.044498883 0.055368066 -0.033961855 2.2579646e-38
0.046584375 0.056255292 -0.032498725 2.2395617e-38
0.043603092 -0.055554584 -0.027731692 4.5006862e-39
0.046785355 -0.055113867 -0.025524622 3.8610621e-39
0.0035451148 -0.05154014 -0.027246246 9.0092505e-39
0.0061374321 -0.050340679 -0.026863983 1.205027e-38
0.012851718 -0.05077526 -0.027322441 9.3675906e-39
0.01673373 -0.05212383 -0.027380304 1.0015474e-38
0.021275707 -0.052478857 -0.025628719 1.0669849e-38
0.029254179 -0.051129293 -0.02812973 3.3060779e-39
0.032725453 -0.053134095 -0.027634818 1.9285468e-39
0.037714526 -0.052188881 -0.0274266 1.2882249e-39
0.042632993 -0.052828074 -0.02742197 1.4726133e-39
0.047365986 -0.052291568 -0.027353782 1.195309e-39
0.051988289 -0.051558021 -0.027664807 1.0116352e-39
0.057097595 -0.050739057 -0.026943872 1.1960237e-39
0.0046056714 -0.045517188 -0.028122885 9.2761124e-39
0.0076855482 -0.047494907 -0.027403677 9.9236384e-39
0.012656746 -0.048231553 -0.027673453 1.3061528e-38
0.017160324 -0.047610283 -0.02715032 9.3755051e-39
0.022245074 -0.047086496 -0.027473582 6.6153913e-39
0.027698992 -0.04678826 -0.027367355 2.2047722e-39
0.032871734 -0.047801193 -0.027610842 6.4356874e-40
0.037485167 -0.047700949 -0.027827974 1.1963852e-39
0.042517163 -0.04876294 -0.027785344 1.4729693e-39
0.046928227 -0.049767718 -0.029084507 1.4722504e-39
0.053131279 -0.048430033 -0.027672399 1.1041896e-39
0.057648182 -0.047138002 -0.027839281 1.1041896e-39
0.062056869 -0.046494771 -0.027801832 1.0119967e-39
0.065443248 -0.045002088 -0.026101407 5.5282345e-40
-0.010477625 -0.040602054 -0.027719503 1.2050947e-38
-0.0076843314 -0.041132636 -0.028330265 1.3254886e-38
-0.0013673102 -0.04068318 -0.027659575 9.2789963e-39
0.0021693965 -0.042755522 -0.027658843 9.6474158e-39
0.0057372563 -0.044116903 -0.027208904 1.1492047e-38
0.014205795 -0.044579022 -0.029437652 5.9693073e-39
0.017738553 -0.0442716 -0.028917195 6.9834606e-39
0.022202155 -0.044436455 -0.027727114 5.0527516e-39
0.026750997 -0.043911871 -0.027885307 3.9543255e-39
0.03206861 -0.044712022 -0.028097678 3.4065552e-39
0.03720862 -0.044961095 -0.029453769 2.4824395e-39
0.059394415 -0.044504628 -0.02705308 2.29913e-39
0.063363232 -0.043967895 -0.028193986 1.3804163e-39
0.067055687 -0.041784901 -0.027605494 1.0127156e-39
0.07244952 -0.040640607 -0.025961239 1.379696e-39
-0.012222455 -0.036719926 -0.026988171 9.4619358e-39
-0.0074058124 -0.03731728 -0.027755933 9.6470473e-39
-0.0030939502 -0.038509939 -0.027182998 9.0942449e-39
0.069390506 -0.038787827 -0.028628105 6.4393588e-40
0.071327962 -0.03702753 -0.02760677 5.5210038e-40
-0.016539352 -0.031881072 -0.027297724 8.44923e-39
-0.012821837 -0.032364368 -0.027441302 8.7279763e-39
-0.0087352591 -0.033620108 -0.027728992 1.0204551e-38
0.073109463 -0.032853842 -0.028074306 1.1038336e-39
0.076927803 -0.031985212 -0.02777718 7.3577558e-40
-0.020957483 -0.026044991 -0.026294988 2.1188793e-38
-0.017695842 -0.027478835 -0.027303949 1.0202385e-38
-0.013273402 -0.027868999 -0.027710823 8.3631524e-39
-0.0080915848 -0.027735088 -0.027496938 1.4172916e-38
0.078201443 -0.027941566 -0.027596649 1.2882263e-39
0.081386738 -0.026749188 -0.027991652 7.3577278e-40
-0.021257443 -0.022195147 -0.027321834 7.5341204e-39
-0.017367339 -0.023014329 -0.027250566 7.5308778e-39
-0.012629959 -0.02266071 -0.027276849 7.5348309e-39
-0.0093522295 -0.022571145 -0.028022902 1.0308256e-38
0.079931974 -0.021015801 -0.029166389 1.3804135e-39
0.082050659 -0.0226292 -0.028451508 7.3576717e-40
-0.023322776 -0.018465504 -0.027561273 1.482696e-38
-0.015784636 -0.018790118 -0.026730461 7.8060256e-39
-0.012451298 -0.017210178 -0.027476268 7.9090182e-39
-0.0093872696 -0.019275611 -0.028158596 1.2620711e-38
0.082835242 -0.017759491 -0.027672777 7.3576857e-40
-0.012119255 -0.012469689 -0.027367013 9.0186028e-39
0.083913937 -0.012965929 -0.027785484 7.3576857e-40
0.085482955 -0.011107987 -0.028204901 1.8403113e-40
-0.012068695 -0.0076955999 -0.027618617 9.3005903e-39
0.07897222 -0.0060523655 -0.027569169 6.4321001e-40
0.082362235 -0.0073406613 -0.02815772 1.3796988e-39
0.086120039 -0.0078114439 -0.028239517 1.8367379e-40
-0.01501159 -0.0048774802 -0.026989751 6.5253705e-39
-0.011913026 -0.0027787525 -0.027600313 8.750306e-39
0.079911627 -0.0028488412 -0.026671389 2.8533884e-39
0.08343488 -0.0026375377 -0.028796325 6.4393028e-40
0.086880937 -0.0021834753 -0.02768494 8.268796e-40
-0.011827077 0.0023589083 -0.027574401 7.7325611e-39
0.078350246 0.0025993816 -0.027237067 2.3924032e-39
0.080800891 0.0022655576 -0.027466789 2.1129381e-39
0.08804293 0.0026203257 -0.027470555 2.9394561e-39
-0.010882853 0.0072231619 -0.027643401 7.1721847e-39
-0.009527985 0.0081006009 -0.027351668 7.7141957e-39
0.078250989 0.0076401434 -0.027713137 3.6817015e-39
0.082701072 0.0074423193 -0.027496904 4.8672813e-39
0.087831885 0.0078472644 -0.027319202 6.2448137e-39
-0.010457749 0.011407192 -0.027905921 8.0869383e-39
-0.0085840439 0.012807868 -0.0272805 9.1039699e-39
0.079089016 0.010489652 -0.029449031 6.5433436e-39
0.082411982 0.011097409 -0.027688846 7.9972552e-39
0.087499045 0.01239882 -0.027478166 8.0815265e-39
-0.010265683 0.016527932 -0.028636308 6.9795047e-39
-0.0079141762 0.017666623 -0.027871756 9.6614611e-39
0.084039412 0.018445786 -0.027269499 8.9080473e-39
0.086428151 0.016857369 -0.027634455 9.2779089e-39
-0.0063465927 0.021353418 -0.027699865 1.0779329e-38
-0.0040093884 0.023461478 -0.02725501 1.0686053e-38
0.079646006 0.024667429 -0.025558013 8.357033e-39
0.082029037 0.022596098 -0.027591273 8.7243735e-39
0.087440573 0.020407902 -0.028394705 1.7396886e-38
-0.0023662467 0.027438348 -0.027608188 1.0875487e-38
0.00099804159 0.029248739 -0.025899161 1.01318e-38
0.078489631 0.027503191 -0.027336931 7.5308722e-39
0.080703668 0.025223857 -0.02858687 8.3570302e-39
-0.0008252362 0.031182233 -0.028313674 9.4014431e-39
0.0023977684 0.032790408 -0.027355311 1.0320155e-38
0.0055034244 0.034402274 -0.027565183 1.4286704e-38
0.063171446 0.034804802 -0.026837513 5.5173885e-40
0.068617418 0.034643203 -0.026080735 5.5246472e-40
0.07343626 0.032857127 -0.026755029 7.2629285e-39
0.076804541 0.032403987 -0.027859176 7.3472026e-39
0.0042023342 0.035904136 -0.027535411 7.3698981e-39
0.0071677645 0.037904821 -0.027547846 9.7655299e-39
0.01147525 0.038842309 -0.029339304 1.1888535e-38
0.059215397 0.037901208 -0.028150428 1.8439126e-40
0.06255576 0.036483102 -0.027442573 6.4501068e-40
0.067472182 0.037112057 -0.027894739 1.1967453e-39
0.072756566 0.037416831 -0.027572649 9.474909e-39
0.075618938 0.036798302 -0.028326361 8.448867e-39
0.0089806486 0.041000377 -0.027257748 1.0684601e-38
0.01249479 0.042571947 -0.027594499 1.2160804e-38
0.015518637 0.042966336 -0.029208746 1.1340046e-38
0.068233281 0.043123264 -0.027431164 1.0662288e-38
0.072820373 0.042248953 -0.027367888 9.278276e-39
0.075101718 0.041801885 -0.029458836 9.1835538e-39
0.009097226 0.049544364 -0.026698992 1.6476022e-38
0.012719373 0.047830641 -0.027414357 1.1975355e-38
0.016968049 0.047648814 -0.027430918 1.271075e-38
0.023981974 0.049694527 -0.028177921 2.3492218e-38
0.053482898 0.049418323 -0.028634423 6.8166892e-39
0.057561103 0.048662368 -0.027744846 2.210886e-39
0.061863679 0.048373748 -0.026534054 2.9423358e-39
0.067456007 0.047614649 -0.027407853 1.0198779e-38
0.070784479 0.045175143 -0.027192682 9.183551e-39
0.013843157 0.051444195 -0.027012337 8.8317018e-39
0.017738383 0.052801766 -0.027489988 9.3798197e-39
0.021989573 0.053146861 -0.027874127 1.4264033e-38
0.027435169 0.051907577 -0.027509678 9.4637406e-39
0.032538261 0.053400308 -0.027689079 8.3570344e-39
0.03769606 0.053291958 -0.027592221 8.1733634e-39
0.042593099 0.052906986 -0.027646307 9.9257964e-39
0.047177672 0.052023336 -0.027663553 1.0579085e-38
0.05209446 0.05103758 -0.027015226 3.495504e-39
0.05618142 0.0509605 -0.026787339 1.9343048e-39
0.063992307 0.05119152 -0.026911691 1.3347459e-38
0.066308454 0.051609915 -0.028098471 1.3067994e-38
0.019242128 0.055864733 -0.026491692 1.2143176e-38
0.021927724 0.056145489 -0.027462512 1.2789267e-38
